ply
format ascii 1.0
comment Created by Open3D
element vertex 1903
property double x
property double y
property double z
end_header
-187.037 -127.61 254.102
-193.528 -151.645 250.735
-14.9393 -225.031 260.496
-9.9623 -223.194 261.066
-5.4752 -222.307 261.585
-1.37986 -221.887 262.11
8.97202 -222.815 262.868
11.9545 -223.754 262.966
-21.1552 -228.326 259.524
15.0578 -224.897 263.121
20.4295 -227.702 263.05
22.7976 -229.434 263.239
17.8173 -226.168 263.149
25.2574 -231.372 263.144
31.5341 -238.575 262.836
33.3401 -241.429 262.616
36.271 -248.218 261.896
34.9031 -244.697 262.309
2.14879 -221.806 262.438
37.4208 -252.314 261.352
27.4698 -233.661 263.095
38.0136 -257.096 260.79
5.71292 -222.213 262.617
38.0409 -263.372 259.94
35.9572 -272.84 258.592
29.5735 -235.983 263.011
-233.068 167.221 270.826
-224.517 168.168 272.106
-218.965 167.602 272.915
-214.461 166.508 273.603
-210.691 165.309 273.987
-207.411 163.825 274.393
-204.647 162.206 274.534
-199.771 158.573 275.018
-197.636 156.584 275.111
-195.672 154.295 275.309
-194.082 152.237 275.448
-191.202 147.642 275.559
-202.112 160.456 274.825
-189.019 142.548 275.425
-188.242 139.956 275.356
-187.667 137.263 275.178
-187.195 134.351 275.106
-192.56 150.008 275.57
-187.064 128.345 274.632
-187.274 125.214 274.361
-188.948 117.908 273.623
-190.048 145.267 275.441
-186.916 131.43 274.927
-197.657 103.294 271.202
-190.485 113.922 273.086
-187.65 121.705 274.022
-193.021 109.399 272.391
-239.23 -94.5578 247.701
-225.488 -92.0568 249.628
-216.26 -92.9767 250.846
-212.542 -93.9852 251.095
-209.174 -95.3561 251.387
-206.292 -96.8279 251.628
-203.147 -98.8158 251.724
-231.04 -92.407 248.88
-220.516 -92.1942 250.408
-198.201 -102.954 251.886
-195.961 -105.213 252.048
-194.048 -107.931 251.946
-192.31 -110.445 251.92
-187.459 -123.715 250.966
-186.914 -127.618 250.74
-186.869 -131.993 250.197
-187.468 -136.972 249.623
-200.66 -100.888 251.911
-189.237 -143.069 248.702
-189.367 -116.614 251.621
-193.468 -151.765 247.191
-188.257 -119.903 251.405
-190.618 -113.391 251.791
-9.81408 -223.244 257.997
-14.9933 -224.898 257.265
-1.59735 -221.755 258.908
9.00383 -223.028 259.728
5.61586 -222.209 259.596
2.16588 -221.91 259.327
-5.48241 -222.33 258.528
14.977 -224.949 260.078
12.0076 -223.867 259.789
20.4223 -227.71 260.015
17.7778 -226.27 260.123
-21.2058 -228.287 256.334
22.8984 -229.47 260.093
27.5625 -233.666 259.986
25.2024 -231.466 260.009
29.5842 -236.009 259.867
37.3038 -252.325 258.262
37.9665 -257.26 257.696
38.074 -263.243 256.883
35.9815 -272.886 255.287
31.5511 -238.596 259.56
34.8332 -244.655 259.047
36.2549 -248.256 258.67
33.4393 -241.466 259.448
-233.136 167.273 267.926
-224.47 168.198 269.275
-204.571 162.215 271.732
-202.008 160.381 271.967
-199.744 158.52 272.313
-197.59 156.544 272.449
-218.909 167.589 270.059
-195.717 154.482 272.625
-210.78 165.334 271.112
-194.061 152.186 272.725
-192.537 149.95 272.705
-207.49 163.81 271.572
-191.231 147.666 272.689
-189.023 142.689 272.626
-187.645 137.322 272.361
-187.044 134.361 272.323
-214.37 166.527 270.648
-186.917 128.383 271.805
-187.238 125.156 271.63
-187.81 121.572 271.157
-190.024 145.201 272.628
-188.76 118.017 270.799
-188.146 139.924 272.537
-192.996 109.284 269.449
-186.811 131.375 272.145
-197.764 103.36 268.415
-190.536 113.919 270.203
-239.19 -94.7093 244.386
-225.337 -91.8621 246.515
-220.613 -92.1242 246.89
-212.475 -94.0032 247.643
-231.239 -92.3353 245.643
-216.334 -92.8726 247.4
-209.179 -95.2101 248.021
-203.096 -98.6514 248.564
-200.484 -100.701 248.636
-198.249 -102.886 248.648
-205.934 -96.8754 248.354
-190.766 -113.458 248.42
-189.405 -116.575 248.261
-188.323 -120.066 247.926
-187.435 -123.56 247.65
-193.907 -107.808 248.62
-187.033 -131.978 246.877
-195.909 -105.247 248.64
-192.125 -110.551 248.566
-186.986 -127.771 247.465
-9.88794 -223.157 254.799
-14.9266 -224.967 254.075
2.14228 -221.992 256.004
9.01771 -222.998 256.565
14.8823 -224.924 256.995
12.1147 -223.885 256.768
17.7052 -226.223 256.957
20.2152 -227.854 256.888
-21.1222 -228.307 253.107
-5.47456 -222.292 255.312
5.56839 -222.307 256.367
22.8599 -229.535 256.939
27.4307 -233.61 256.838
29.5734 -235.933 256.726
31.5151 -238.664 256.348
-1.55714 -221.812 255.671
36.2722 -248.336 255.629
37.3559 -252.475 255.035
37.9625 -257.197 254.573
37.9635 -263.198 253.673
25.2293 -231.363 256.976
33.2023 -241.602 256.322
34.9569 -244.629 255.985
35.741 -272.783 252.038
-218.967 167.594 267.316
-214.476 166.58 267.868
-210.802 165.332 268.413
-207.372 163.808 268.653
-204.617 162.196 268.964
-233.205 167.303 264.966
-224.346 168.106 266.454
-199.67 158.546 269.478
-197.727 156.5 269.672
-195.63 154.284 269.791
-201.949 160.462 269.295
-191.19 147.703 269.858
-190.06 145.144 269.75
-189.079 142.711 269.81
-187.226 134.451 269.511
-186.874 131.524 269.293
-186.827 128.344 269.131
-187.115 125.03 268.733
-187.866 121.75 268.409
-188.282 139.974 269.749
-188.94 117.947 267.821
-192.48 149.94 269.934
-187.601 137.122 269.582
-190.392 113.782 267.335
-193.01 109.314 266.747
-194.097 152.21 269.841
-197.73 103.378 265.534
-239.221 -94.6758 240.93
-231.102 -92.5069 242.157
-225.381 -91.972 243.056
-216.388 -92.9156 244.131
-212.573 -93.9637 244.443
-209.26 -95.3621 244.794
-203.172 -98.66 245.091
-198.107 -102.807 245.357
-193.968 -107.813 245.389
-195.924 -105.161 245.412
-192.194 -110.552 245.204
-190.709 -113.443 245.115
-189.389 -116.589 245.028
-220.59 -92.2142 243.557
-205.985 -97.0278 244.904
-200.669 -100.842 245.469
-14.9726 -224.97 250.847
-5.46992 -222.37 252.095
-1.38306 -221.875 252.634
5.63276 -222.249 253.281
8.88173 -223.015 253.559
12.0189 -223.815 253.536
14.9641 -224.865 253.761
17.623 -226.187 253.764
-9.73068 -223.144 251.598
22.7187 -229.563 253.951
25.2442 -231.42 253.731
27.3745 -233.653 253.691
2.19646 -222.065 253.016
29.5075 -235.987 253.507
20.3913 -227.785 253.866
33.3674 -241.409 253.045
34.9651 -244.589 252.719
36.302 -248.231 252.424
-21.1085 -228.308 249.977
38.0319 -257.207 251.312
37.2605 -252.422 251.877
31.5478 -238.558 253.359
37.9822 -263.156 250.459
35.7773 -272.914 248.8
-233.254 167.226 262.106
-224.48 168.141 263.63
-218.919 167.715 264.354
-210.793 165.207 265.381
-207.592 163.821 266.001
-204.695 162.154 266.269
-197.593 156.578 266.923
-195.669 154.474 266.943
-192.523 149.983 267.129
-191.212 147.702 267.083
-194.02 152.284 267.024
-201.955 160.479 266.462
-199.713 158.529 266.633
-214.535 166.593 265.009
-189.015 142.62 267.085
-188.248 140.089 267.017
-187.533 137.203 266.916
-187.171 134.351 266.628
-187.756 121.652 265.501
-188.812 117.843 265.02
-190.496 113.941 264.496
-189.969 145.12 267.129
-193.006 109.172 263.787
-186.887 131.526 266.526
-197.724 103.388 262.594
-186.975 128.37 266.359
-187.16 125.244 265.771
-239.201 -94.6194 237.568
-231.213 -92.3859 238.977
-212.48 -93.9618 241.122
-209.208 -95.4157 241.428
-220.526 -92.2555 240.303
-206.026 -96.9255 241.583
-225.347 -92.0223 239.681
-200.504 -100.711 241.977
-198.135 -102.951 242.021
-216.319 -92.7827 240.747
-195.96 -105.34 242.169
-192.196 -110.578 241.861
-193.845 -107.798 242.043
-189.205 -116.494 241.513
-203.202 -98.7678 241.805
-190.6 -113.555 241.795
-21.0083 -228.326 246.636
-14.9439 -224.952 247.74
-9.80756 -223.253 248.595
-5.53417 -222.289 248.915
-1.38397 -221.91 249.453
2.32431 -221.901 249.885
9.06108 -223.022 250.35
5.77819 -222.227 250.058
20.3828 -227.811 250.722
23.0235 -229.58 250.738
25.2378 -231.357 250.683
27.4251 -233.561 250.523
14.9662 -224.906 250.612
31.4932 -238.558 250.098
17.8177 -226.36 250.696
33.2681 -241.339 249.965
34.9347 -244.58 249.6
36.2407 -248.314 249.144
11.9671 -223.828 250.48
29.7136 -236.102 250.407
38.0104 -257.333 248.169
38.0129 -263.218 247.304
35.8118 -272.893 245.638
37.3404 -252.396 248.755
-233.075 167.26 259.179
-224.472 168.139 260.649
-218.815 167.551 261.672
-214.405 166.656 262.134
-210.744 165.389 262.665
-207.533 163.907 263.068
-204.51 162.133 263.517
-199.65 158.447 263.884
-197.749 156.563 264.006
-194.037 152.216 264.281
-192.467 149.984 264.355
-195.731 154.472 264.219
-188.186 140.016 264.144
-187.499 137.273 264.053
-187.199 134.412 263.78
-187.008 131.349 263.739
-201.939 160.404 263.655
-186.963 128.357 263.369
-187.227 125.075 263.135
-189.978 145.203 264.335
-187.749 121.697 262.802
-188.739 118.019 262.266
-189.042 142.577 264.294
-191.302 147.66 264.372
-192.936 109.243 261.001
-197.655 103.376 259.715
-190.478 113.895 261.712
-231.107 -92.3595 235.551
-225.35 -91.9186 236.232
-220.512 -92.1404 236.899
-216.259 -92.8173 237.369
-209.19 -95.375 238.008
-239.172 -94.6966 234.127
-206.074 -96.9144 238.337
-200.573 -100.751 238.669
-198.245 -102.947 238.73
-195.911 -105.351 238.799
-190.611 -113.387 238.397
-212.565 -94.019 237.736
-189.254 -116.57 238.29
-192.126 -110.686 238.576
-203.144 -98.7967 238.412
-193.997 -107.745 238.614
-21.061 -228.369 243.334
-9.73371 -223.226 245.316
-14.9905 -224.911 244.397
-5.48378 -222.27 245.868
2.20307 -221.857 246.627
5.79007 -222.293 247.005
-1.66751 -221.906 246.321
8.86791 -222.954 247.197
11.9654 -223.796 247.343
25.2829 -231.444 247.541
27.5113 -233.654 247.504
29.6116 -235.977 247.327
31.4394 -238.541 247.137
17.7896 -226.2 247.544
33.2987 -241.519 246.91
20.4377 -227.766 247.697
35.0056 -244.6 246.559
36.3582 -248.34 246.15
22.8699 -229.553 247.657
37.3208 -252.495 245.624
37.9625 -263.161 244.04
35.8054 -272.883 242.418
15.01 -224.99 247.492
37.9754 -257.286 245.046
-233.155 167.227 256.405
-224.473 168.03 257.777
-218.919 167.622 258.726
-214.523 166.632 259.234
-210.767 165.333 259.689
-207.474 163.858 260.178
-204.546 162.186 260.679
-202.03 160.496 260.933
-195.746 154.338 261.322
-193.957 152.179 261.463
-192.526 150.007 261.537
-199.662 158.508 261.029
-189.044 142.575 261.423
-187.476 137.28 261.215
-197.692 156.501 261.213
-187.055 134.565 261.103
-191.155 147.686 261.565
-186.962 128.31 260.615
-186.975 131.433 260.82
-190.062 145.105 261.622
-187.177 125.101 260.249
-188.068 140.01 261.248
-187.804 121.601 259.869
-193.097 109.217 257.946
-197.712 103.452 256.736
-188.836 117.966 259.479
-190.35 113.877 258.926
-239.24 -94.5593 230.732
-220.564 -92.0814 233.617
-216.339 -92.8196 233.974
-212.557 -93.9841 234.489
-209.186 -95.3632 234.736
-231.158 -92.3887 232.136
-206.036 -96.9965 235.042
-225.382 -91.9425 232.966
-203.3 -98.7398 235.136
-200.549 -100.739 235.338
-195.926 -105.35 235.518
-190.586 -113.45 235.102
-193.95 -107.806 235.36
-198.164 -102.949 235.388
-192.309 -110.529 235.22
-189.171 -116.574 235.004
-14.909 -224.899 241.323
-9.87995 -223.188 242.055
-5.57439 -222.339 242.66
-1.53645 -221.891 243.137
-21.1096 -228.33 240.156
8.96041 -222.946 243.956
5.63104 -222.237 243.803
11.955 -223.693 244.274
14.9085 -224.972 244.339
22.9165 -229.565 244.293
25.2047 -231.442 244.419
2.23792 -221.914 243.578
29.5255 -235.93 244.155
27.551 -233.684 244.291
17.7664 -226.219 244.47
33.3219 -241.448 243.443
34.974 -244.621 243.326
36.2372 -248.262 242.871
37.287 -252.29 242.364
20.3499 -227.712 244.421
35.7828 -272.846 239.205
31.5563 -238.55 243.998
37.9765 -263.218 240.765
38.0158 -257.179 241.742
-224.512 168.057 254.855
-218.842 167.592 255.857
-214.52 166.73 256.47
-210.723 165.282 256.988
-204.546 162.245 257.727
-202.112 160.431 257.884
-199.824 158.47 258.161
-233.185 167.2 253.466
-197.54 156.59 258.491
-194.053 152.118 258.669
-192.566 149.952 258.739
-191.116 147.639 258.671
-207.329 163.812 257.415
-189.018 142.559 258.684
-188.218 139.927 258.599
-186.876 131.507 258.033
-195.779 154.426 258.538
-187.189 134.366 258.298
-187.126 125.238 257.492
-187.682 137.443 258.563
-190.07 145.143 258.801
-187.778 121.624 256.992
-188.806 117.955 256.59
-193.063 109.317 255.21
-197.664 103.429 253.903
-186.99 128.365 257.838
-190.499 113.96 255.987
-239.162 -94.5999 227.255
-231.043 -92.3328 228.685
-220.494 -92.1302 230.242
-216.327 -92.8586 230.666
-212.499 -94.1244 231.117
-203.273 -98.6747 231.877
-200.521 -100.703 231.849
-195.845 -105.321 232.055
-193.976 -107.759 232.09
-225.44 -91.8544 229.634
-192.272 -110.585 231.931
-190.741 -113.419 231.832
-209.221 -95.2694 231.312
-189.345 -116.76 231.645
-206.027 -97.0656 231.766
-198.095 -103.049 232.093
-21.1532 -228.22 236.943
-14.9735 -225.034 238.047
-9.92533 -223.249 238.911
-1.38912 -221.908 239.93
2.27657 -221.966 240.364
5.67626 -222.256 240.66
14.8377 -224.879 241.238
17.9224 -226.269 241.316
20.4541 -227.694 241.263
22.9232 -229.489 241.174
-5.45152 -222.26 239.565
25.2344 -231.471 241.243
8.8515 -222.918 240.895
29.4575 -236.099 241.008
33.3083 -241.359 240.574
12.0597 -223.767 241.09
34.9174 -244.755 240.186
27.4133 -233.636 241.093
38.0487 -257.231 238.517
38.0426 -263.323 237.668
31.6339 -238.518 240.741
37.4716 -252.389 239.227
35.8297 -272.847 235.886
36.2745 -248.221 239.739
-233.116 167.195 250.546
-224.385 168.098 252.036
-218.861 167.608 252.941
-214.534 166.531 253.565
-210.643 165.363 254.184
-207.447 163.924 254.587
-204.603 162.217 254.905
-201.954 160.533 255.186
-199.775 158.576 255.384
-197.667 156.493 255.506
-195.663 154.436 255.752
-190.073 145.146 255.881
-188.242 139.896 255.746
-187.61 137.212 255.749
-187.091 134.351 255.512
-186.896 131.375 255.275
-194.096 152.149 255.929
-192.512 149.952 255.864
-189.113 142.529 255.868
-191.138 147.516 255.895
-186.96 128.438 255.059
-188.839 118.086 253.847
-187.189 125.16 254.647
-187.783 121.564 254.292
-193.011 109.256 252.277
-197.661 103.534 251.063
-190.38 113.987 253.168
-239.236 -94.6695 223.776
-231.175 -92.4168 225.256
-225.356 -91.8661 226.052
-216.368 -92.871 227.189
-212.736 -93.9316 227.708
-209.156 -95.3266 228.054
-203.092 -98.8588 228.458
-200.586 -100.793 228.669
-220.438 -92.1581 226.735
-198.138 -102.897 228.59
-193.92 -107.787 228.574
-190.68 -113.492 228.443
-192.382 -110.642 228.712
-205.917 -97.0637 228.329
-195.886 -105.204 228.798
-189.349 -116.562 228.275
-21.102 -228.279 233.693
-9.90677 -223.171 235.721
-14.8275 -224.887 234.773
-5.46512 -222.391 236.365
-1.3563 -221.865 236.804
5.60112 -222.229 237.573
8.93726 -222.957 237.647
14.7179 -224.946 238.116
22.8891 -229.607 238.261
25.1849 -231.46 238.103
27.4267 -233.63 238.072
12.0881 -223.79 237.945
29.4365 -235.866 237.852
2.21171 -221.901 237.138
31.5576 -238.574 237.67
33.2789 -241.523 237.35
34.9046 -244.661 237.142
20.3642 -227.706 238.094
17.7115 -226.184 238.238
37.3144 -252.342 236.014
37.9651 -263.308 234.404
35.8708 -272.874 232.714
36.2056 -248.309 236.572
37.9068 -257.263 235.323
-233.105 167.265 247.643
-218.849 167.565 250.22
-214.576 166.571 250.725
-210.672 165.386 251.202
-224.402 168.035 249.248
-204.624 162.265 252.108
-201.975 160.383 252.342
-195.758 154.455 253.044
-197.65 156.485 252.821
-194.032 152.286 252.95
-207.514 164.016 251.711
-190.07 145.086 253.073
-188.957 142.75 252.996
-188.339 139.906 253.009
-199.784 158.523 252.601
-187.655 137.316 252.931
-186.984 131.551 252.478
-192.628 150.1 253.021
-191.309 147.645 253.152
-186.795 128.284 252.15
-187.208 125.215 251.752
-187.058 134.497 252.726
-190.291 113.803 250.311
-193.013 109.226 249.28
-188.765 117.843 250.959
-187.754 121.665 251.485
-197.649 103.422 248.137
-239.164 -94.7197 220.374
-220.504 -92.1704 223.415
-216.305 -92.8522 224.166
-209.119 -95.3202 224.645
-206.081 -96.9134 224.954
-225.288 -91.7455 222.886
-203.178 -98.7994 225.311
-200.533 -100.754 225.34
-212.578 -93.9682 224.371
-231.05 -92.368 221.955
-198.12 -102.862 225.35
-194.081 -107.9 225.403
-190.736 -113.47 225.042
-192.301 -110.517 225.288
-196.072 -105.15 225.499
-189.257 -116.726 224.95
-21.1505 -228.133 230.486
-14.9406 -224.894 231.847
-9.83678 -223.073 232.53
-5.48895 -222.104 233.105
-1.39914 -222.073 233.648
2.15605 -222.01 234.052
8.82924 -222.807 234.573
12.071 -223.825 234.799
20.3008 -227.752 235.02
22.7813 -229.491 235.109
27.4845 -233.563 234.833
5.60126 -222.199 234.281
29.5444 -235.928 234.661
31.618 -238.688 234.427
14.9567 -225.051 234.982
33.4258 -241.45 234.156
17.7111 -226.227 234.917
34.9837 -244.617 233.97
25.2169 -231.544 234.904
37.4297 -252.402 232.812
38.0431 -257.205 231.983
35.8025 -272.9 229.36
36.2453 -248.363 233.333
37.8929 -263.326 231.158
-224.424 168.161 246.237
-218.957 167.604 247.222
-214.501 166.695 247.972
-210.818 165.269 248.408
-207.344 163.798 249.127
-204.642 162.145 249.24
-233.095 167.222 244.668
-197.623 156.563 250.062
-191.262 147.73 250.327
-194.179 152.102 250.382
-201.996 160.4 249.655
-190.046 145.267 250.367
-195.729 154.43 250.222
-188.937 142.705 250.218
-199.594 158.494 249.793
-188.417 139.967 250.179
-187.535 137.258 250.109
-192.549 149.971 250.255
-187.058 128.347 249.387
-187.249 125.048 248.947
-190.446 113.885 247.364
-187.731 121.601 248.618
-187.134 134.389 249.98
-188.75 117.998 248.1
-186.868 131.448 249.621
-197.663 103.429 245.236
-192.917 109.275 246.567
-239.158 -94.6596 217.093
-231.176 -92.4224 218.395
-216.291 -92.8976 220.712
-209.126 -95.3598 221.524
-212.533 -93.9929 220.969
-203.259 -98.8145 221.901
-225.519 -91.8278 219.514
-198.129 -102.838 222.062
-220.497 -92.2137 220.101
-195.928 -105.437 221.97
-194.129 -107.939 221.989
-192.253 -110.639 222.073
-189.447 -116.55 221.65
-205.998 -96.9581 221.59
-200.642 -100.778 221.978
-190.642 -113.489 221.884
-14.8876 -224.893 228.454
-5.51366 -222.25 229.894
-1.51816 -221.774 230.626
2.13831 -221.828 230.938
-9.80151 -223.161 229.234
-21.1269 -228.377 227.281
5.85039 -222.219 231.123
12.0101 -223.908 231.692
17.7972 -226.327 231.811
20.332 -227.72 231.925
22.8229 -229.379 231.856
29.4929 -235.865 231.577
31.5164 -238.619 231.266
33.2059 -241.401 230.97
34.8567 -244.724 230.697
15.0037 -224.882 231.777
25.2387 -231.351 231.792
27.6671 -233.606 231.697
36.1546 -248.216 230.197
8.98732 -222.794 231.341
37.9169 -263.263 227.934
37.4394 -252.261 229.716
37.9821 -257.169 228.784
35.8744 -272.818 226.15
-233.117 167.155 241.793
-224.455 168.103 243.423
-214.479 166.554 245.093
-210.648 165.476 245.595
-207.568 163.835 246.047
-204.629 162.134 246.567
-201.862 160.414 246.6
-218.8 167.717 244.277
-197.55 156.576 247.183
-195.698 154.269 247.345
-193.975 152.385 247.382
-191.186 147.617 247.545
-199.78 158.476 247.075
-188.228 139.999 247.503
-187.496 137.277 247.167
-187.101 134.549 246.964
-187.029 131.38 246.724
-189.992 145.262 247.562
-188.978 142.573 247.37
-192.482 150.035 247.525
-187.729 121.648 245.7
-188.756 118.006 245.331
-190.492 113.98 244.475
-187.084 128.494 246.436
-187.253 125.127 246.224
-193.064 109.284 243.625
-197.698 103.406 242.325
-239.193 -94.6335 213.61
-231.026 -92.3508 215.121
-220.482 -92.0736 216.675
-225.386 -91.9738 216.03
-212.492 -93.8223 217.688
-216.179 -92.8235 217.194
-200.606 -100.825 218.684
-198.158 -102.918 218.647
-193.986 -107.851 218.688
-192.222 -110.727 218.676
-203.136 -98.7938 218.478
-209.289 -95.3774 218.041
-189.392 -116.631 218.272
-206.042 -96.7613 218.375
-196.01 -105.345 218.694
-190.64 -113.449 218.488
-21.0774 -228.394 224.049
-14.7927 -224.96 225.38
-9.91763 -223.262 226.076
-5.48881 -222.208 226.696
2.25772 -222.001 227.72
5.66375 -222.291 228.122
11.9108 -223.859 228.469
20.4095 -227.671 228.707
22.9654 -229.459 228.706
17.6521 -226.174 228.563
27.5315 -233.617 228.514
25.3012 -231.384 228.556
-1.42425 -221.892 227.416
14.9612 -224.892 228.53
8.91175 -222.972 228.252
29.5777 -235.953 228.291
36.3281 -248.227 226.934
37.9562 -257.252 225.602
37.8414 -263.336 224.589
37.3901 -252.401 226.514
33.3107 -241.4 227.839
31.5418 -238.451 228.141
34.9854 -244.63 227.568
35.8133 -272.99 222.934
-214.441 166.602 242.107
-218.796 167.586 241.449
-210.677 165.363 242.847
-207.349 163.867 243.253
-224.501 168.088 240.538
-202.008 160.449 243.98
-233.094 167.238 238.873
-199.696 158.506 244.2
-197.684 156.408 244.419
-192.503 149.994 244.566
-191.126 147.729 244.736
-189.042 142.632 244.662
-188.19 139.997 244.636
-190.09 145.251 244.703
-204.63 162.225 243.703
-187.498 137.275 244.407
-187.184 134.349 244.282
-194.05 152.304 244.583
-186.924 128.391 243.84
-187.158 125.144 243.387
-195.767 154.266 244.559
-188.868 117.868 242.356
-187.792 121.712 242.949
-197.683 103.376 239.378
-186.92 131.442 244.008
-190.497 113.913 241.627
-192.98 109.156 240.661
-239.261 -94.6952 210.161
-220.555 -92.1727 213.291
-231.222 -92.3506 211.7
-209.22 -95.2969 214.766
-212.578 -94.0353 214.334
-205.976 -96.9597 214.93
-203.266 -98.7179 215.141
-225.293 -91.787 212.739
-198.126 -102.864 215.4
-195.911 -105.21 215.42
-216.331 -92.9309 213.882
-192.216 -110.547 215.3
-190.687 -113.458 215.128
-200.554 -100.764 215.437
-193.94 -107.896 215.414
-189.381 -116.588 214.84
-14.9338 -225.019 222.053
-9.88117 -223.139 222.855
-1.54405 -221.846 223.985
-21.243 -228.313 220.832
8.98468 -222.843 225.073
11.9595 -223.827 225.34
14.9893 -224.931 225.468
17.7085 -226.21 225.586
-5.53975 -222.347 223.529
22.9953 -229.63 225.523
25.2404 -231.357 225.527
27.6319 -233.659 225.331
29.592 -235.937 225.315
2.25012 -221.982 224.45
5.62438 -222.237 224.832
34.8832 -244.7 224.29
20.3612 -227.773 225.496
36.3896 -248.304 223.825
33.3311 -241.385 224.685
37.393 -252.409 223.282
31.4681 -238.693 224.945
35.9642 -272.915 219.534
37.9526 -263.385 221.399
38.0404 -257.21 222.424
-188.337 139.977 241.792
-187.673 137.265 241.597
-186.884 131.371 241.155
-187.084 128.492 240.904
-187.224 125.079 240.43
-188.765 117.971 239.479
-187.075 134.398 241.359
-190.483 113.989 238.804
-192.947 109.313 237.829
-189.007 142.568 241.884
-187.818 121.763 240.002
-197.672 103.472 236.449
-225.546 -91.9607 209.181
-220.484 -92.1346 209.937
-231.157 -92.3663 208.32
-239.281 -94.7568 206.668
-209.152 -95.1818 211.414
-216.446 -92.8892 210.557
-206.054 -96.9958 211.606
-195.969 -105.416 212.072
-194.061 -107.839 211.986
-192.297 -110.549 212.027
-212.552 -94.0284 210.94
-189.291 -116.608 211.558
-190.553 -113.34 211.872
-200.591 -100.742 211.84
-203.178 -98.8697 211.764
-198.093 -102.895 211.943
-21.2077 -228.217 217.557
-14.9263 -224.883 218.799
-9.89122 -223.261 219.8
-5.42702 -222.228 220.389
-1.45936 -221.858 220.917
5.55546 -222.285 221.64
11.9555 -223.905 222.127
20.3622 -227.772 222.438
2.31205 -221.983 221.386
22.838 -229.468 222.285
25.2475 -231.501 222.327
27.5278 -233.556 222.11
29.4384 -236.029 222.038
8.77167 -222.943 221.876
33.2973 -241.506 221.467
17.766 -226.341 222.319
34.9202 -244.589 221.122
36.2695 -248.273 220.756
37.423 -252.328 219.912
31.5323 -238.539 221.775
37.9624 -263.369 218.158
14.8546 -224.903 222.247
37.971 -257.125 219.184
35.9328 -272.913 216.283
-190.37 113.853 235.895
-188.802 117.98 236.742
-193.128 109.334 234.918
-197.691 103.468 233.693
-187.739 121.604 237.138
-231.139 -92.4245 204.867
-216.332 -92.9804 207.085
-239.1 -94.6648 203.086
-209.218 -95.3426 207.981
-206.081 -96.9729 208.263
-225.295 -91.968 205.713
-200.522 -100.717 208.578
-212.423 -93.9573 207.653
-203.278 -98.6898 208.448
-195.946 -105.265 208.73
-193.963 -107.745 208.691
-220.536 -92.027 206.594
-192.27 -110.586 208.515
-189.283 -116.679 208.2
-198.089 -102.802 208.648
-190.674 -113.409 208.408
-21.016 -228.189 214.279
-1.49812 -221.864 217.657
2.18216 -221.77 218.141
5.75643 -222.261 218.48
8.90117 -223.019 218.739
12.0838 -223.927 218.955
-5.53214 -222.253 217.134
-14.9637 -224.998 215.655
-9.947 -223.193 216.411
20.4011 -227.665 219.21
17.7304 -226.264 219.165
25.2886 -231.411 219.242
22.942 -229.6 219.258
29.5884 -236.049 218.922
33.5254 -241.446 218.227
14.9336 -224.978 219.097
36.3452 -248.34 217.386
37.4021 -252.41 216.793
38.0279 -257.329 216.062
27.4758 -233.702 219.008
37.9525 -263.236 215.019
31.5524 -238.566 218.552
35.9664 -272.868 212.988
34.9201 -244.733 217.973
-193.035 109.304 232.036
-197.57 103.47 230.534
-239.262 -94.6434 199.845
-220.537 -92.2245 203.27
-231.247 -92.388 201.35
-212.674 -94.0506 204.161
-209.08 -95.2753 204.53
-203.279 -98.8286 205.083
-225.318 -91.9248 202.395
-206.074 -96.8871 204.892
-216.343 -92.8641 203.669
-195.862 -105.27 205.394
-193.974 -107.752 205.139
-200.414 -100.814 205.348
-190.619 -113.584 204.975
-189.353 -116.619 204.82
-192.214 -110.611 205.311
-198.259 -102.993 205.435
-9.96413 -223.123 213.162
-21.0335 -228.296 210.947
-14.9828 -224.902 212.29
-1.36143 -221.962 214.455
2.129 -221.915 214.935
12.1122 -223.93 215.724
-5.48184 -222.262 213.902
17.7508 -226.243 215.913
20.3773 -227.703 216.08
5.77995 -222.24 215.242
22.9161 -229.466 215.891
8.99472 -222.951 215.528
29.5082 -235.944 215.484
31.6247 -238.474 215.365
27.537 -233.661 215.86
14.9667 -224.919 215.939
33.2912 -241.536 215.036
25.1736 -231.472 215.912
37.575 -252.515 213.634
38.0649 -257.235 212.661
37.9874 -263.329 211.636
34.9013 -244.632 214.569
36.3006 -248.238 214.261
35.9097 -272.834 209.819
-197.703 103.336 227.737
-239.162 -94.6619 196.298
-231.329 -92.4243 197.912
-220.652 -92.2097 199.71
-216.346 -92.9627 200.427
-225.434 -91.9314 198.889
-212.501 -93.8806 200.805
-205.995 -96.8336 201.503
-200.586 -100.704 201.882
-195.928 -105.223 202.037
-192.29 -110.561 201.902
-190.718 -113.463 201.695
-209.143 -95.26 201.083
-203.243 -98.6687 201.721
-189.325 -116.601 201.468
-198.168 -102.939 201.973
-194.029 -107.794 201.789
-14.8772 -224.929 209.086
-1.38376 -221.891 211.401
2.21244 -221.932 211.643
-5.42062 -222.34 210.725
5.5904 -222.271 212.167
-21.1518 -228.198 207.805
8.90282 -222.933 212.422
12.0297 -223.783 212.542
14.9672 -224.896 212.743
17.7396 -226.265 212.797
-9.82228 -223.013 210.024
27.4458 -233.617 212.572
29.5546 -235.981 212.416
31.6008 -238.603 212.177
33.3639 -241.361 211.953
34.6924 -244.715 211.53
36.3497 -248.386 210.991
37.3588 -252.433 210.401
37.9626 -257.252 209.426
20.3297 -227.765 212.883
25.2827 -231.396 212.726
35.8846 -272.951 206.584
38.1143 -263.28 208.468
22.8533 -229.6 212.939
-197.66 103.419 224.743
-239.124 -94.6907 192.749
-225.358 -91.7828 195.55
-212.588 -93.9601 197.373
-231.165 -92.3021 194.533
-203.088 -98.7816 198.343
-220.493 -92.1724 196.287
-200.512 -100.783 198.47
-198.218 -102.904 198.513
-205.967 -97.0924 198.213
-195.865 -105.35 198.639
-216.302 -92.8784 196.862
-209.133 -95.3353 197.762
-192.061 -110.53 198.4
-190.587 -113.435 198.244
-189.388 -116.651 198.126
-193.862 -107.88 198.605
-21.0625 -228.349 204.364
-14.9369 -224.941 205.885
-5.4497 -222.211 207.448
-1.33738 -221.838 208.056
8.87675 -222.976 209.222
14.9579 -224.99 209.588
17.7839 -226.282 209.685
20.3056 -227.775 209.656
22.8961 -229.385 209.568
-9.93563 -223.196 206.828
25.2724 -231.381 209.542
12.0184 -223.778 209.358
27.5458 -233.449 209.407
29.5416 -236.056 209.246
5.62574 -222.284 208.764
31.5709 -238.589 209.075
34.8148 -244.631 208.372
37.4643 -252.449 207.113
2.29574 -222.035 208.54
37.9532 -257.208 206.316
35.893 -272.972 203.199
33.3508 -241.531 208.67
36.1842 -248.166 207.867
37.8572 -263.282 205.199
-197.693 103.39 221.92
-239.258 -94.6654 189.362
-231.146 -92.3718 191.01
-220.635 -92.1504 192.921
-216.274 -92.8493 193.606
-225.358 -91.9122 192.174
-209.11 -95.3958 194.408
-203.222 -98.6115 195.03
-200.623 -100.847 195.044
-205.916 -96.9288 194.764
-198.158 -102.775 195.082
-195.926 -105.348 195.193
-192.151 -110.676 195.082
-212.572 -94.08 193.999
-190.587 -113.5 194.838
-193.899 -107.845 195.142
-189.207 -116.56 194.543
-21.1526 -228.278 201.15
-14.9816 -225.035 202.62
-9.94437 -223.163 203.41
-1.54514 -221.929 204.8
2.17833 -221.998 205.364
8.89273 -223.007 205.862
-5.50513 -222.328 204.202
20.3761 -227.708 206.517
17.7368 -226.254 206.38
22.8768 -229.502 206.498
25.2166 -231.394 206.382
14.7912 -224.945 206.333
29.5271 -235.929 206.129
12.0673 -223.813 206.098
31.453 -238.561 205.837
5.75895 -222.335 205.798
33.2618 -241.432 205.579
37.3984 -252.475 203.803
34.9058 -244.707 205.074
37.9613 -263.274 201.977
35.8328 -272.942 199.875
27.4284 -233.646 206.253
36.3303 -248.257 204.56
38.0567 -257.254 203.002
-197.684 103.462 218.895
-231.151 -92.3764 187.614
-225.301 -91.9335 188.614
-220.506 -92.1324 189.465
-216.369 -92.9444 190.106
-239.236 -94.6347 185.903
-209.143 -95.2751 190.993
-212.576 -94.0446 190.671
-203.186 -98.7479 191.569
-195.842 -105.256 191.797
-193.856 -107.954 191.795
-192.167 -110.463 191.643
-189.326 -116.634 191.24
-200.725 -100.781 191.711
-205.982 -96.9635 191.466
-198.201 -102.962 191.855
-190.564 -113.5 191.587
-14.8296 -224.979 199.171
-1.54397 -222.014 201.703
-10.092 -223.145 200.254
2.29324 -221.962 202.094
5.64658 -222.378 202.424
-5.51684 -222.224 201.074
11.8976 -223.742 202.886
9.02538 -222.99 202.79
-21.1842 -228.367 197.942
22.9281 -229.525 203.201
25.3244 -231.419 203.135
27.3733 -233.675 202.981
29.6411 -236.017 202.923
33.4017 -241.43 202.338
15.0446 -224.964 203.206
20.4798 -227.771 203.304
34.9209 -244.609 201.916
17.5866 -226.285 203.233
36.2719 -248.436 201.399
37.3564 -252.455 200.496
38.1006 -257.237 199.766
31.5616 -238.524 202.731
35.8287 -272.858 196.539
37.9666 -263.317 198.757
-197.572 103.477 215.866
-231.246 -92.2283 184.129
-225.255 -91.9346 185.152
-216.39 -92.9464 186.577
-209.177 -95.3346 187.589
-220.584 -92.132 185.949
-206.145 -96.8529 187.937
-203.202 -98.7363 188.071
-239.142 -94.7081 182.446
-200.499 -100.871 188.274
-212.632 -93.9765 187.25
-196.064 -105.352 188.476
-192.275 -110.683 188.316
-190.559 -113.502 188.031
-198.172 -102.948 188.39
-193.92 -107.84 188.48
-189.301 -116.721 187.847
-14.9674 -224.847 196.091
-9.90034 -223.067 196.986
-5.46525 -222.319 197.722
-1.4877 -221.897 198.455
5.74623 -222.224 199.268
8.97531 -222.982 199.537
12.1385 -223.782 199.819
-21.1731 -228.332 194.687
14.9351 -224.881 199.96
17.7647 -226.216 199.97
22.94 -229.474 200.063
2.25136 -222.064 198.792
27.525 -233.578 199.864
20.3627 -227.75 199.982
25.2605 -231.423 200.154
33.3114 -241.391 199.01
35.0414 -244.667 198.654
37.3918 -252.366 197.422
38.0256 -263.416 195.398
31.4811 -238.568 199.402
35.9121 -272.892 193.299
29.5607 -235.946 199.694
36.239 -248.409 198.226
37.9484 -257.398 196.52
-197.602 103.339 212.823
-239.243 -94.5839 178.859
-231.225 -92.3735 180.732
-220.507 -92.2591 182.645
-225.373 -91.9755 181.734
-216.385 -92.8517 183.295
-209.101 -95.3683 184.097
-203.228 -98.6526 184.82
-212.676 -93.9688 183.857
-200.652 -100.736 185.004
-192.072 -110.608 184.909
-195.97 -105.332 185.11
-198.115 -102.981 185.056
-189.282 -116.65 184.544
-193.963 -107.871 185.003
-190.806 -113.464 184.731
-206.093 -96.884 184.611
-21.1461 -228.511 191.341
-9.91863 -223.12 193.74
-1.48906 -221.954 195.144
5.6382 -222.33 196.008
-14.8675 -225.097 192.695
12.0801 -224.005 196.504
2.28114 -221.914 195.766
8.92245 -222.835 196.312
-5.51949 -222.363 194.405
20.3808 -227.843 196.824
22.9056 -229.507 196.759
25.2741 -231.466 196.743
17.7241 -226.109 196.863
29.4703 -235.957 196.485
33.2407 -241.426 195.818
34.9593 -244.621 195.384
36.2463 -248.312 194.891
14.9703 -225.068 196.688
37.9608 -257.26 193.382
38.0073 -263.431 192.011
35.9039 -272.874 189.872
31.6783 -238.575 196.175
27.4441 -233.702 196.719
37.2652 -252.323 194.129
-197.72 103.491 210.123
-239.238 -94.6531 175.463
-231.275 -92.3584 177.193
-225.32 -91.926 178.439
-220.488 -92.1188 179.351
-216.351 -92.8539 179.959
-203.234 -98.7613 181.396
-200.536 -100.896 181.542
-198.207 -102.97 181.727
-206.141 -96.9689 181.103
-212.437 -93.9701 180.501
-209.217 -95.4284 180.849
-189.184 -116.741 181.052
-193.922 -107.961 181.768
-195.964 -105.309 181.671
-190.718 -113.471 181.384
-192.278 -110.6 181.645
-21.2368 -228.387 187.985
-14.9948 -224.945 189.536
-9.85953 -223.025 190.485
-5.38942 -222.31 191.161
2.16985 -221.916 192.367
9.00917 -222.973 193.041
17.5948 -226.325 193.598
14.8754 -224.855 193.635
-1.52992 -221.8 191.911
22.7961 -229.413 193.638
20.3822 -227.782 193.715
25.1226 -231.563 193.664
27.4103 -233.561 193.391
5.77761 -222.186 192.807
11.9782 -223.844 193.241
33.3715 -241.525 192.565
34.8355 -244.639 192.187
36.317 -248.3 191.639
37.2427 -252.426 190.946
29.5329 -235.969 193.217
35.868 -272.94 186.604
31.5777 -238.571 193.003
37.9678 -263.168 188.755
38.0827 -257.353 189.98
-197.651 103.414 207.253
-239.333 -94.7478 171.846
-231.202 -92.4208 173.775
-220.559 -92.1809 175.704
-216.352 -92.954 176.464
-212.605 -94.0014 176.879
-209.159 -95.4017 177.359
-205.962 -96.8595 177.93
-203.205 -98.6925 177.914
-198.189 -102.904 178.235
-200.576 -100.671 178.181
-196.008 -105.28 178.304
-225.466 -91.8844 175.033
-192.202 -110.635 178.2
-190.683 -113.607 177.933
-193.993 -107.852 178.205
-189.432 -116.729 177.701
-21.1782 -228.105 184.557
-9.85888 -223.118 187.305
-5.35357 -222.293 188.164
-1.39182 -221.877 188.808
2.23619 -221.908 189.223
5.67379 -222.249 189.533
-14.9354 -225.032 186.244
8.9509 -222.92 189.942
11.9586 -223.881 190.205
15.0254 -224.85 190.279
22.8226 -229.561 190.404
29.5277 -236.015 190.025
31.399 -238.525 189.755
33.3715 -241.472 189.316
17.7513 -226.242 190.492
25.3197 -231.506 190.339
36.2651 -248.326 188.524
38.0654 -257.225 186.806
37.9346 -263.388 185.533
27.5764 -233.579 190.215
20.3618 -227.779 190.486
34.9898 -244.706 188.911
35.8831 -272.88 183.29
37.2542 -252.346 187.694
-197.667 103.516 204.137
-239.238 -94.6233 168.341
-225.374 -91.9376 171.412
-216.265 -92.9609 172.994
-212.506 -93.8806 173.452
-220.544 -92.2037 172.326
-231.157 -92.4775 170.31
-206.047 -96.9952 174.398
-203.275 -98.8351 174.562
-209.18 -95.3898 173.919
-200.448 -100.801 174.671
-198.169 -103.066 174.779
-190.693 -113.574 174.497
-196.022 -105.293 174.73
-192.155 -110.505 174.645
-189.182 -116.696 174.168
-194.126 -107.861 174.885
17.7931 -226.15 187.285
22.8845 -229.502 187.173
14.917 -224.921 187.051
20.3088 -227.715 187.273
31.626 -238.612 186.418
33.4159 -241.396 186.065
36.3182 -248.207 185.133
29.5425 -235.895 186.685
37.3958 -252.45 184.373
25.2476 -231.438 187.218
38.1095 -257.245 183.558
27.5622 -233.675 186.989
38.0078 -263.197 182.268
34.9782 -244.677 185.632
35.9075 -272.88 179.898
-197.581 103.487 201.142
-239.208 -94.5557 164.869
-220.419 -92.0874 168.827
-216.276 -92.8421 169.705
-231.229 -92.3951 166.74
-225.393 -91.8746 168.02
-212.633 -93.9865 170.168
-198.208 -103.017 171.306
-195.88 -105.253 171.511
-206.003 -96.8992 170.84
-193.918 -107.867 171.312
-209.107 -95.422 170.556
-203.128 -98.7261 171.112
-192.213 -110.528 171.265
-190.738 -113.599 171.105
-200.586 -100.878 171.379
-189.359 -116.618 170.81
27.4135 -233.523 183.648
31.5968 -238.509 183.207
34.932 -244.765 182.329
33.3681 -241.412 182.798
36.4305 -248.225 181.808
35.9084 -272.884 176.638
37.9625 -257.224 180.044
37.3856 -252.344 181.032
29.6359 -235.943 183.63
38.0093 -263.26 178.849
-197.766 103.374 198.199
-239.217 -94.7013 161.449
-220.518 -92.1397 165.445
-216.365 -92.8696 166.007
-231.252 -92.3354 163.279
-206.021 -96.9123 167.383
-200.58 -100.841 167.933
-198.14 -102.843 167.996
-195.833 -105.215 168.004
-225.448 -91.8867 164.462
-212.587 -93.9038 166.572
-193.926 -107.847 168.066
-190.673 -113.417 167.609
-203.197 -98.7094 167.673
-189.206 -116.544 167.402
-192.238 -110.64 167.813
-209.208 -95.3462 167.037
33.3032 -241.462 179.581
36.3056 -248.215 178.535
37.3352 -252.333 177.762
37.9831 -257.251 177.013
35.9177 -272.861 173.279
31.5382 -238.561 179.898
38.0986 -263.318 175.574
34.8945 -244.695 179.298
-197.537 103.507 195.17
-239.285 -94.6797 157.814
-220.52 -92.1791 161.913
-216.394 -92.9455 162.719
-212.46 -93.8782 163.249
-231.256 -92.429 159.87
-203.264 -98.7208 164.262
-200.517 -100.682 164.467
-198.111 -102.851 164.575
-196.014 -105.245 164.602
-225.258 -91.9016 161.066
-206.112 -97.0033 164.145
-209.067 -95.4208 163.584
-192.207 -110.522 164.347
-193.913 -107.684 164.457
-190.558 -113.544 164.169
-189.272 -116.622 164.056
38.0099 -257.379 173.64
37.4258 -252.299 174.57
37.8473 -263.262 172.199
35.8822 -272.849 169.973
34.8688 -244.641 175.853
36.351 -248.298 175.294
-197.716 103.453 192.19
-239.209 -94.7235 154.316
-225.458 -91.9358 157.679
-231.202 -92.4585 156.472
-216.432 -92.9059 159.243
-209.171 -95.3885 160.21
-205.963 -96.9039 160.547
-203.266 -98.6887 160.784
-212.433 -94.0678 159.704
-195.913 -105.294 161.156
-192.26 -110.692 160.975
-190.676 -113.489 160.795
-220.603 -92.192 158.456
-189.395 -116.609 160.533
-198.198 -102.94 161.11
-193.884 -107.673 161.008
-200.496 -100.761 160.939
36.2685 -248.489 172.169
37.3905 -252.367 171.388
38.0247 -257.28 170.426
35.787 -272.951 166.54
37.9466 -263.222 168.8
-197.678 103.473 189.319
-231.083 -92.3537 152.761
-220.611 -92.1015 155.014
-239.337 -94.6317 150.781
-216.241 -93.0061 155.88
-212.669 -94.0317 156.49
-209.195 -95.2466 156.787
-225.336 -91.8635 154.004
-206.056 -97.0316 157.03
-203.135 -98.7325 157.396
-193.919 -107.849 157.717
-189.419 -116.649 157.111
-192.181 -110.651 157.52
-190.786 -113.545 157.394
-198.224 -102.919 157.562
-195.844 -105.337 157.712
-200.61 -100.788 157.709
37.978 -257.292 166.861
36.2643 -248.237 168.71
38.0288 -263.291 165.671
35.8651 -272.977 163.307
37.4096 -252.395 167.996
-197.692 103.435 186.209
-239.374 -94.7117 147.204
-225.323 -91.8833 150.567
-220.629 -92.0676 151.467
-216.187 -92.9099 152.347
-209.148 -95.4374 153.382
-206.078 -96.8747 153.646
-200.607 -100.851 154.179
-195.96 -105.294 154.254
-231.237 -92.2413 149.149
-194.007 -107.762 154.226
-192.308 -110.469 154.176
-212.521 -93.9443 152.918
-203.213 -98.7812 153.984
-190.851 -113.454 153.894
-189.211 -116.629 153.685
-198.189 -102.983 154.244
36.2078 -248.372 165.402
37.4356 -252.449 164.659
37.9641 -257.302 163.665
35.9528 -272.891 159.875
38.0046 -263.265 162.338
-197.586 103.286 183.182
-239.29 -94.6786 143.651
-220.588 -92.2264 148.062
-225.471 -91.9151 147.048
-216.435 -92.8652 148.632
-203.221 -98.7195 150.421
-206.176 -96.9779 150.25
-212.56 -93.9398 149.37
-231.192 -92.4768 145.704
-198.137 -102.916 150.733
-209.262 -95.3007 149.784
-195.87 -105.277 150.827
-194.04 -107.839 150.803
-192.242 -110.641 150.764
-189.249 -116.639 150.195
-200.492 -100.698 150.657
-190.634 -113.479 150.527
37.4259 -252.444 161.363
37.9368 -257.282 160.448
37.9629 -263.331 158.918
35.8656 -272.909 156.523
36.1591 -248.389 162.111
-197.73 103.393 180.144
-239.116 -94.6179 140.223
-231.119 -92.4242 142.318
-225.477 -91.8161 143.575
-220.441 -92.1576 144.449
-212.603 -93.8736 145.838
-206.015 -96.9693 146.867
-198.135 -102.924 147.312
-195.942 -105.396 147.409
-216.454 -92.8419 145.27
-209.274 -95.3197 146.395
-203.178 -98.7363 146.911
-192.216 -110.589 147.293
-200.49 -100.809 147.155
-190.559 -113.51 146.986
-189.333 -116.563 146.653
-193.956 -107.801 147.393
36.2058 -248.34 158.807
37.4177 -252.431 157.999
38.0069 -257.263 157.165
37.9864 -263.184 155.59
35.9094 -272.824 152.98
-197.57 103.441 177.118
-239.261 -94.6272 136.557
-225.433 -91.8541 140.074
-220.422 -92.2354 141.002
-212.596 -94.0181 142.36
-209.153 -95.3501 142.719
-231.107 -92.4125 138.734
-203.078 -98.9054 143.486
-206.049 -96.8602 143.314
-216.318 -92.8999 141.707
-195.852 -105.374 143.909
-194.016 -107.85 143.908
-189.418 -116.65 143.169
-192.273 -110.58 143.736
-200.528 -100.804 143.849
-198.27 -102.83 144.011
-190.651 -113.515 143.392
36.2338 -248.305 155.663
38.0102 -257.306 153.634
37.9487 -263.31 152.304
37.3426 -252.464 154.806
35.9057 -272.794 149.721
-197.744 103.434 174.179
-263.567 -109.862 124.95
-220.431 -92.072 137.53
-231.207 -92.4551 135.169
-239.16 -94.6401 132.951
-216.385 -92.8622 138.375
-212.508 -93.9567 138.949
-206.04 -96.9324 139.803
-209.186 -95.2616 139.481
-203.168 -98.7608 139.932
-225.419 -91.9641 136.48
-193.907 -107.768 140.402
-192.24 -110.573 140.258
-190.587 -113.455 140.001
-189.307 -116.722 139.707
-198.14 -102.808 140.311
-195.843 -105.318 140.434
-200.567 -100.775 140.314
36.3823 -248.308 152.246
37.4517 -252.481 151.398
37.8666 -263.172 148.979
35.852 -272.847 146.397
38.0018 -257.302 150.382
-197.701 103.389 171.198
-253.464 -101.751 124.987
-220.639 -92.1993 134.05
-255.475 -99.1194 124.924
-230.978 -92.4707 131.652
-216.365 -92.942 134.845
-225.417 -91.9275 132.93
-212.513 -94.0275 135.405
-209.132 -95.3576 136.015
-206.083 -97.0384 136.341
-239.194 -94.675 129.481
-198.227 -102.952 137.037
-193.947 -107.816 136.916
-192.183 -110.494 136.646
-200.592 -100.911 136.814
-195.905 -105.346 137.018
-190.51 -113.443 136.456
-203.175 -98.7765 136.559
-189.352 -116.587 136.193
37.4626 -252.309 148.122
36.2356 -248.359 148.961
38.0636 -257.28 147.037
35.9442 -272.844 142.848
38.0359 -263.374 145.371
-197.655 103.471 168.11
-239.314 -94.6583 125.805
-243.642 -93.8463 124.92
-225.312 -91.88 129.504
-220.387 -92.169 130.538
-216.216 -92.9382 131.3
-206.09 -96.8891 132.872
-203.221 -98.7996 133.065
-200.573 -100.766 133.335
-245.671 -91.2591 125.013
-231.134 -92.3538 128.163
-209.186 -95.3368 132.409
-198.218 -102.95 133.409
-193.991 -107.923 133.454
-196.01 -105.379 133.522
-212.446 -93.9639 131.973
-192.095 -110.551 133.367
-190.636 -113.535 133.128
-189.326 -116.676 132.763
36.2698 -248.232 145.619
37.3336 -252.488 144.736
38.0568 -257.289 143.702
37.9891 -263.333 142.185
35.8288 -272.907 139.525
-197.619 103.36 165.082
-234.293 -86.631 124.902
-243.319 -89.4378 122.159
-231.873 -88.7196 125.133
-220.436 -92.1843 126.969
-216.312 -92.8352 127.792
-209.118 -95.1968 128.833
-203.265 -98.7537 129.595
-229.929 -91.2735 124.978
-198.11 -102.785 129.938
-206.017 -96.7925 129.42
-196.116 -105.285 129.961
-212.506 -94.0257 128.467
-193.963 -107.73 129.841
-200.515 -100.669 129.787
-225.34 -91.9109 125.908
-190.57 -113.469 129.509
-189.372 -116.578 129.302
-192.231 -110.621 129.836
36.2848 -248.293 142.335
37.288 -252.376 141.438
37.9583 -257.274 140.32
38.0772 -263.321 138.802
35.7718 -272.818 136
-197.702 103.446 162.146
-234.37 -86.3852 121.256
-227.951 -85.5502 123.053
-218.396 -86.2466 125.083
-243.36 -89.4832 118.636
-214.438 -91.1654 125.066
-209.247 -95.4214 125.357
-222.748 -85.5329 124.118
-216.536 -88.8443 125.057
-212.59 -93.9531 125.008
-205.919 -97.0226 125.727
-203.13 -98.6926 126.131
-198.227 -102.835 126.296
-195.861 -105.248 126.573
-200.602 -100.708 126.426
-193.997 -107.786 126.482
-192.248 -110.601 126.255
-189.393 -116.728 125.816
-190.666 -113.494 126.107
36.3499 -248.313 138.994
38.073 -263.383 135.445
35.7249 -272.933 132.622
37.3748 -252.389 138.074
38.0108 -257.158 136.888
-197.736 103.509 158.99
-243.359 -89.4462 115.063
-218.22 -86.0443 121.584
-214.102 -86.8297 122.527
-227.971 -85.6688 119.451
-222.807 -85.5836 120.604
-206.907 -89.3272 123.475
-234.352 -86.4498 117.715
-200.971 -92.6494 124.281
-198.175 -94.5126 124.585
-195.523 -96.5771 124.846
-210.401 -88.0314 123.004
-191.181 -101.026 124.759
-187.3 -106.109 124.717
-203.797 -90.8144 123.843
-184.131 -112.027 124.097
-193.322 -98.8733 124.964
-189.065 -103.474 124.831
-185.773 -109.05 124.572
36.374 -248.359 135.609
34.2157 -288.122 124.932
35.8828 -272.89 129.23
31.4658 -286.606 124.894
37.2716 -252.438 134.681
38.0471 -263.289 132.014
37.8667 -257.326 133.415
-197.725 103.343 155.948
-234.189 -86.5177 114.202
-243.206 -89.3435 111.482
-227.943 -85.5918 115.848
-222.673 -85.5489 117.197
-218.127 -86.0045 118.024
-214.089 -86.9351 118.801
-210.407 -87.987 119.614
-200.941 -92.5294 120.802
-195.67 -96.5242 121.237
-193.222 -98.6544 121.368
-203.739 -90.8099 120.488
-189.089 -103.566 121.295
-207.034 -89.359 120.003
-184.254 -112.082 120.639
-191.04 -101.162 121.453
-185.748 -109.064 120.959
-198.175 -94.3964 121.125
-187.259 -106.192 121.307
36.2422 -248.268 132.132
37.1739 -276.714 124.96
37.3726 -252.427 131.534
39.9275 -278.34 125.063
38.0494 -257.262 130.214
38.1064 -263.318 128.58
35.7894 -272.983 125.699
-197.647 103.408 152.877
-218.249 -85.9998 114.493
-222.724 -85.6252 113.629
-210.427 -87.9123 115.885
-206.967 -89.2216 116.409
-243.311 -89.4442 107.929
-234.267 -86.3263 110.729
-227.962 -85.5632 112.339
-214.113 -86.8504 115.343
-203.8 -90.7944 117.093
-200.962 -92.4319 117.239
-198.143 -94.5806 117.567
-195.649 -96.5164 117.776
-185.7 -109.047 117.566
-193.297 -98.712 117.817
-191.218 -101.041 117.916
-184.152 -112.157 117.225
-189.115 -103.591 117.91
-187.395 -106.111 117.716
36.2869 -248.321 129.026
37.4106 -252.444 127.989
40.3994 -265.427 124.987
37.9677 -263.433 125.267
43.0224 -267.154 124.872
37.9698 -257.312 126.817
41.9322 -275.127 122.676
-197.598 103.594 149.803
-243.216 -89.4223 104.325
-234.201 -86.4487 106.997
-227.926 -85.5901 108.675
-214.126 -86.7025 111.781
-210.432 -87.9176 112.381
-207.065 -89.3298 112.968
-222.704 -85.4767 109.915
-203.795 -90.8932 113.479
-193.132 -98.7177 114.455
-195.711 -96.6035 114.228
-191.248 -101.076 114.348
-189.171 -103.488 114.327
-218.174 -85.9717 110.898
-198.159 -94.4944 114.202
-200.867 -92.5719 113.698
-185.733 -108.992 114.066
-184.215 -112.082 113.737
-187.252 -106.246 114.314
36.3079 -248.323 125.479
40.5959 -252.974 124.943
43.2069 -254.635 125.04
44.3919 -258.502 124.032
44.2462 -265.015 122.466
41.9114 -275.178 119.344
37.9664 -251.34 125.018
-197.699 103.412 146.758
-234.326 -86.4019 103.454
-218.181 -85.9971 107.434
-214.065 -86.8409 108.254
-228.017 -85.5993 105.125
-210.423 -87.8998 108.973
-203.803 -90.8819 109.915
-222.76 -85.5177 106.481
-243.319 -89.6152 100.469
-206.901 -89.3512 109.481
-195.555 -96.3694 110.901
-189.122 -103.445 110.864
-198.206 -94.5308 110.648
-187.252 -106.269 110.834
-200.925 -92.7016 110.362
-184.216 -112.035 110.23
-191.088 -101.021 110.809
-193.238 -98.7691 110.835
-185.717 -109.088 110.509
40.553 -241.498 124.735
41.9744 -245.026 123.94
44.0548 -253.406 122.089
41.8482 -275.011 115.811
44.2643 -264.835 118.851
44.39 -258.529 120.673
43.2216 -248.841 123.074
-197.634 103.472 143.672
-243.23 -89.4064 96.7849
-227.968 -85.6414 101.506
-222.797 -85.4789 102.871
-218.138 -86.1773 103.877
-213.878 -86.7123 104.798
-234.386 -86.3303 99.8766
-210.342 -87.9299 105.462
-198.086 -94.4936 106.988
-193.294 -98.5943 107.401
-195.567 -96.5052 107.219
-206.853 -89.2815 105.87
-189.06 -103.693 107.364
-200.801 -92.4628 106.728
-203.936 -90.8671 106.305
-185.705 -109.115 107.087
-191.078 -101.111 107.347
-187.388 -106.257 107.194
-184.223 -112.051 106.759
-292.462 -386.845 20.0877
-289.457 -389.552 19.9656
42.9931 -248.756 119.709
44.0735 -253.379 118.616
41.9015 -244.886 120.651
40.4848 -241.424 121.317
41.9277 -275.086 112.483
44.3105 -265.087 115.428
44.5216 -258.655 117.276
-197.693 103.46 140.517
-243.354 -89.4027 93.2735
-234.325 -86.4608 96.1191
-222.676 -85.5585 99.2565
-214.138 -86.7766 101.198
-210.263 -88.0192 101.823
-203.769 -90.8387 103.002
-200.97 -92.6241 103.236
-227.987 -85.5924 97.8662
-218.016 -86.0927 100.313
-195.548 -96.5518 103.617
-198.121 -94.4069 103.564
-189.196 -103.758 103.938
-206.914 -89.2601 102.399
-185.794 -109.093 103.417
-184.069 -112.131 103.25
-193.369 -98.7898 104.031
-191.008 -101.217 103.895
-187.334 -106.319 103.706
-283.09 -376.385 20.011
-280.109 -378.937 20.0905
-276.957 -381.628 20.0562
41.9541 -244.95 117.214
40.5423 -241.478 117.945
43.0571 -249.06 116.276
43.9754 -253.269 115.349
44.2707 -264.917 112.18
44.5098 -258.467 113.986
41.9223 -275.041 108.941
-197.585 103.263 137.421
-412.53 -218.485 19.9118
-234.123 -86.5359 92.577
-228.07 -85.5128 94.197
-414.95 -215.223 19.9997
-222.821 -85.6161 95.6091
-218.188 -85.9798 96.6909
-210.264 -87.9738 98.2711
-243.327 -89.543 89.6273
-206.932 -89.3578 98.8481
-200.958 -92.4628 99.6333
-198.062 -94.5142 99.9527
-193.354 -98.6864 100.328
-203.758 -90.8079 99.3185
-214.11 -86.8459 97.5866
-187.299 -106.346 100.123
-185.665 -109.077 100.019
-195.726 -96.4177 100.176
-189.281 -103.616 100.262
-184.238 -112.089 99.7898
-191.251 -101.202 100.272
-270.823 -368.667 19.9828
-273.842 -366.04 20.0483
-267.774 -371.4 19.9281
40.5326 -241.499 114.543
41.9083 -245.04 113.886
43.0749 -248.866 113.079
44.3544 -258.53 110.478
44.1167 -253.207 111.86
41.883 -275.138 105.451
44.2442 -264.911 108.697
-197.764 103.438 134.367
-220.676 87.0253 125.01
-414.021 -194.1 20.0752
-409.14 -200.465 19.9708
-404.382 -206.868 20.0045
-401.919 -210.012 20.0508
-243.33 -89.3785 85.8332
-411.728 -197.349 19.9356
-227.967 -85.7248 90.6745
-234.2 -86.5162 88.8844
-406.647 -203.719 20.096
-214.095 -86.7522 94.0357
-210.371 -87.942 94.7586
-222.753 -85.487 91.9816
-218.172 -86.1394 93.179
-207.011 -89.2383 95.2829
-198.198 -94.4193 96.3806
-193.27 -98.7281 96.7307
-203.815 -91.0014 95.7561
